# .PCD v0.7 - Point Cloud Data file format
VERSION 0.7
FIELDS x y z rgb
SIZE 4 4 4 4
TYPE F F F F
COUNT 1 1 1 1
WIDTH 997
HEIGHT 1
VIEWPOINT 0 0 0 1 0 0 0
POINTS 997
DATA ascii
0.039078355 0.2444571 0.95700002 -2.8395382e+38
0.040904708 0.2444571 0.95700002 -2.8528824e+38
0.042686403 0.24420163 0.95600003 -2.8662789e+38
0.044510879 0.24420168 0.95600003 -2.8929673e+38
0.046286896 0.24394622 0.95500004 -2.8663306e+38
0.048059091 0.24369076 0.95400006 -2.8663823e+38
0.049827434 0.24343535 0.95300007 -2.8664345e+38
0.051646158 0.24343535 0.95300007 -2.8664866e+38
0.053521022 0.24369079 0.95400006 -2.9333127e+38
0.055341661 0.24369077 0.95400006 -3.0133791e+38
0.057401955 0.24471253 0.95800006 -3.1731998e+38
0.059663035 0.24650061 0.96500009 -3.3064881e+38
0.061504632 0.2465006 0.96500003 nan
0.063674539 0.24777785 0.97000003 nan
-0.001111025 0.24834816 0.96500003 -2.999514e+38
0.00072607771 0.24680404 0.95900005 -2.9328963e+38
0.0025535673 0.24654669 0.95800006 -2.9195519e+38
0.0043726694 0.246032 0.95599997 -2.892863e+38
0.0061971564 0.24603197 0.95599997 -2.9063115e+38
0.008021621 0.24603201 0.95599997 -2.8796227e+38
0.0098564234 0.24628937 0.95699996 -2.8129007e+38
0.01168278 0.24628937 0.95700002 -2.8395895e+38
0.013509134 0.24628937 0.95700002 -2.8394854e+38
0.015335491 0.24628937 0.95700002 -2.8661742e+38
0.017161893 0.24628937 0.95699996 -2.8528298e+38
0.018988254 0.24628937 0.95700002 -2.8528298e+38
0.020836381 0.24654669 0.95800006 -2.8394854e+38
0.022664646 0.24654669 0.958 -2.8528298e+38
0.024492932 0.24654669 0.95800006 -2.826141e+38
0.026321245 0.2465467 0.95800006 -2.8528298e+38
0.028120114 0.24628937 0.95700002 -2.85283e+38
0.02991516 0.246032 0.95600003 -2.85283e+38
0.031739615 0.24603198 0.95599997 -2.85283e+38
0.033564106 0.246032 0.95600003 -2.85283e+38
0.035388559 0.246032 0.95599997 -2.8395897e+38
0.03721302 0.24603197 0.95600003 -2.8395897e+38
0.039119206 0.2465467 0.95800006 -2.8395375e+38
0.040904708 0.24628936 0.95700002 -2.8394856e+38
0.042731091 0.24628936 0.95700002 -2.85283e+38
0.044557475 0.24628936 0.95700002 -2.8929673e+38
0.046335332 0.24603201 0.95600003 -2.8662783e+38
0.048109457 0.24577461 0.95499998 -2.8662783e+38
0.049932003 0.24577463 0.95500004 -2.8530379e+38
0.051754534 0.24577466 0.95499998 -2.8931233e+38
0.053633183 0.24603198 0.95600003 -2.9199161e+38
0.055457659 0.24603194 0.95600003 -2.9865862e+38
0.057461925 0.24680403 0.95900005 -3.1599075e+38
0.059786685 0.24886292 0.96700007 -3.279851e+38
0.061632141 0.24886292 0.96700013 nan
0.063740171 0.24989234 0.97100008 nan
-0.0011144765 0.25097352 0.96800005 -3.0394432e+38
0.00072755106 0.24915871 0.96100003 -2.9328963e+38
0.0025589131 0.24889937 0.9600001 -2.892863e+38
0.0043818429 0.24838084 0.95800006 -2.8795186e+38
0.0062101539 0.24838085 0.95800006 -2.8529339e+38
0.0080384258 0.2483809 0.95800006 -2.8395895e+38
0.0098667275 0.24838085 0.95800006 -2.8529339e+38
0.011694996 0.2483809 0.95800006 -2.8795186e+38
0.013523256 0.2483809 0.95800006 -2.8661744e+38
0.015351562 0.24838085 0.95800006 -2.8394856e+38
0.017179834 0.2483809 0.95800006 -2.8661744e+38
0.019027976 0.24864012 0.95900005 -2.8394854e+38
0.020858189 0.24864012 0.95900005 -2.826141e+38
0.022711972 0.24889936 0.9600001 -2.8661742e+38
0.024569592 0.24915871 0.96100003 -2.8661742e+38
0.026403641 0.24915868 0.96100003 -2.8795186e+38
0.028208265 0.24889934 0.96000004 -2.8528298e+38
0.030040326 0.24889937 0.96000004 -2.8394856e+38
0.031872451 0.24889939 0.96000004 -2.8394856e+38
0.033704542 0.24889934 0.96000004 -2.8661744e+38
0.035499662 0.24864011 0.95900005 -2.8661744e+38
0.037290901 0.24838087 0.95800006 -2.85283e+38
0.039119177 0.2483809 0.95800006 -2.85283e+38
0.040947475 0.24838087 0.95800006 -2.8261412e+38
0.042775728 0.2483809 0.95800006 -2.8261412e+38
0.044603996 0.24838085 0.95800006 -2.8661742e+38
0.046432309 0.24838087 0.95800006 -2.8662783e+38
0.048210196 0.24812156 0.95700002 -2.8529339e+38
0.049984269 0.24786228 0.95600003 -2.8530379e+38
0.051808715 0.24786232 0.95600003 -2.8930711e+38
0.053689308 0.24812162 0.95700002 -2.9065198e+38
0.055573724 0.24838087 0.95800006 -2.9731376e+38
0.057581723 0.2491587 0.96100003 -3.146511e+38
0.059415706 0.24915868 0.96100003 -3.2930392e+38
0.061632127 0.2507143 0.96700007 nan
0.063740127 0.25175139 0.97100008 nan
-0.0011179727 0.25361046 0.97100008 -3.0795803e+38
0.00072909147 0.25152093 0.96300006 -2.9328961e+38
0.0025642421 0.2512598 0.96200007 -2.866174e+38
0.0043910313 0.2507374 0.96000004 -2.8795186e+38
0.0062230956 0.25073734 0.9600001 -2.8529339e+38
0.0080551859 0.25073737 0.96000004 -2.8528818e+38
0.009887306 0.25073737 0.96000004 -2.8529339e+38
0.011719415 0.25073734 0.96000004 -2.85283e+38
0.013551487 0.25073734 0.9600001 -2.8528298e+38
0.015367581 0.25047621 0.95900005 -2.8394856e+38
0.017197745 0.25047621 0.95900005 -2.8394856e+38
0.019047773 0.25073737 0.9600001 -2.8261412e+38
0.020901574 0.25099856 0.96100003 -2.8528298e+38
0.022759279 0.2512598 0.96200013 -2.8661742e+38
0.024620784 0.25152093 0.963 -2.8528813e+38
0.026458627 0.25152093 0.96300006 -2.8394854e+38
0.028325817 0.25178212 0.96400005 -2.8528298e+38
0.030165566 0.25178212 0.96400005 -2.8661744e+38
0.03200528 0.25178212 0.96400005 -2.8661744e+38
0.033809885 0.25152096 0.96300006 -2.8661744e+38
0.035573654 0.25099856 0.96100003 -2.8795188e+38
0.037368752 0.25073737 0.96000004 -2.85283e+38
0.039160013 0.25047621 0.95900005 -2.839486e+38
0.040947482 0.25021502 0.95800012 -2.8261412e+38
0.042775758 0.25021502 0.95800006 -2.8261412e+38
0.044604033 0.25021502 0.95800006 -2.8394854e+38
0.046432287 0.25021505 0.95800006 -2.8662783e+38
0.048210196 0.24995381 0.95700002 -2.8662783e+38
0.049984254 0.24969268 0.95600003 -2.852986e+38
0.051808737 0.24969263 0.95600003 -2.8663823e+38
0.053689308 0.24995387 0.95700002 -2.8664866e+38
0.055573687 0.25021502 0.95800006 -2.9597412e+38
0.057581723 0.25099856 0.96100003 -3.1331145e+38
0.059415713 0.25099856 0.96100003 -3.2664024e+38
0.061632141 0.25256562 0.96700007 nan
0.063740119 0.25361043 0.97100008 nan
-0.0011190958 0.25573254 0.972 -3.0661837e+38
0.00073589385 0.25573254 0.97200006 -2.946136e+38
0.0025642458 0.25310162 0.96200007 -2.8929146e+38
0.0043910053 0.25257534 0.96000004 -2.8662262e+38
0.0062230956 0.25257534 0.96000004 -2.8662262e+38
0.0080552157 0.25257537 0.96000004 -2.9061553e+38
0.0098872911 0.25257537 0.9600001 -2.8661742e+38
0.011719374 0.2525754 0.96000004 -2.8661742e+38
0.013551487 0.25257534 0.96000004 -2.8394854e+38
0.015367599 0.2523123 0.95899999 -2.8528298e+38
0.017197771 0.2523123 0.95899999 -2.8394854e+38
0.019047761 0.25257534 0.96000004 -2.8795186e+38
0.020901592 0.25283855 0.96100003 -2.8795186e+38
0.022759246 0.25310162 0.96200013 -2.8661742e+38
0.024620807 0.25336465 0.96300006 -2.8528298e+38
0.026458608 0.25336468 0.96300006 -2.8394854e+38
0.028325824 0.25362775 0.96400005 -2.85283e+38
0.030165555 0.25362781 0.96400011 -2.85283e+38
0.032038465 0.25389093 0.96500009 -2.8261412e+38
0.03384503 0.25362778 0.96400005 -2.8261412e+38
0.035610668 0.25310159 0.96200007 -2.8261931e+38
0.03736873 0.25257537 0.96000004 -2.8261412e+38
0.039160028 0.25231227 0.95899999 -2.8261412e+38
0.040947467 0.25204924 0.95800006 -2.8394856e+38
0.042775765 0.25204921 0.95800006 -2.8661742e+38
0.044604018 0.25204918 0.95800006 -2.8661742e+38
0.046432309 0.25204921 0.95800006 -2.8529339e+38
0.04826057 0.25204921 0.95800006 -2.8662783e+38
0.05008886 0.25204918 0.95800006 -2.8663823e+38
0.051917136 0.25204921 0.95800006 -2.8930711e+38
0.053801559 0.25231224 0.95900005 -2.879831e+38
0.055631734 0.2523123 0.95900005 -2.9465009e+38
0.057641625 0.25310159 0.96200007 -3.1198743e+38
0.059477545 0.25310159 0.96200007 -3.2665066e+38
0.061632134 0.25441706 0.96700007 nan
0.063740149 0.2554695 0.97100008 nan
0.066268757 0.25810051 0.98100007 nan
0.068140946 0.25810045 0.98100007 nan
-0.0011179633 0.25732854 0.97100008 -3.1061131e+38
0.00073059648 0.25573844 0.96500009 -2.972981e+38
0.0025669318 0.2552084 0.96300006 -2.9196038e+38
0.0043955613 0.2546784 0.96100003 -2.9062596e+38
0.0062295441 0.2546784 0.96100003 -2.892863e+38
0.0080636162 0.25467843 0.96100003 -2.852882e+38
0.0099078994 0.2549434 0.96200007 -2.8528298e+38
0.011743782 0.25494337 0.96200007 -2.8528298e+38
0.013579717 0.2549434 0.96200007 -2.8528298e+38
0.015383558 0.25441337 0.96000004 -2.8528298e+38
0.017215678 0.25441337 0.96000004 -2.8661742e+38
0.019067595 0.25467837 0.96099997 -2.8661742e+38
0.020923374 0.25494343 0.96200007 -2.8528298e+38
0.022782957 0.25520843 0.96300006 -2.8528298e+38
0.024671877 0.25573847 0.96500009 -2.85283e+38
0.02651353 0.25573847 0.96500009 -2.8661744e+38
0.028384535 0.2560035 0.96599996 -2.8928632e+38
0.03022808 0.25600356 0.96600002 -2.8394856e+38
0.032071672 0.2560035 0.96600002 -2.8261414e+38
0.033880077 0.25573844 0.96500003 -2.8129011e+38
0.03568472 0.25547343 0.96400005 -2.839538e+38
0.037485503 0.25520843 0.96300006 -2.8529341e+38
0.039282516 0.2549434 0.96200007 -2.8261412e+38
0.04103291 0.25441337 0.96000004 -2.85283e+38
0.042820409 0.25414839 0.95899999 -2.8661742e+38
0.044650607 0.25414836 0.95900005 -2.8528298e+38
0.046432272 0.25388333 0.95800006 -2.8395895e+38
0.048310973 0.25414839 0.95900005 -2.8396935e+38
0.050141171 0.25414842 0.95900005 -2.8397456e+38
0.052025527 0.25441337 0.96000004 -2.8397978e+38
0.053913683 0.25467843 0.96100003 -2.879831e+38
0.055747703 0.2546784 0.96100003 -2.986482e+38
0.057701558 0.2552084 0.96300006 -3.0931855e+38
0.059539378 0.25520843 0.96300006 -3.2398178e+38
0.061695874 0.2565335 0.96800005 -3.3863464e+38
0.063740171 0.25732854 0.97100008 nan
0.066336334 0.26024371 0.98199999 nan
0.068210401 0.26024371 0.98200005 nan
0.00073209219 0.25811988 0.96700007 -3.0128059e+38
0.0025722198 0.25758603 0.96500003 -2.9329999e+38
0.0044047441 0.25705209 0.96300006 -2.9328961e+38
0.0062360484 0.25678524 0.96200007 -2.8795186e+38
0.0080719795 0.25678524 0.96200007 -2.8661742e+38
0.0099182297 0.25705212 0.96300006 -2.8795186e+38
0.011756023 0.25705212 0.96300006 -2.8528298e+38
0.013593862 0.25705212 0.96300006 -2.826141e+38
0.015415622 0.25678521 0.96200007 -2.826141e+38
0.017233575 0.2565183 0.96100003 -2.8394854e+38
0.019087447 0.25678521 0.96200007 -2.8661742e+38
0.020945137 0.25705215 0.96300006 -2.8394854e+38
0.022806639 0.25731909 0.96400011 -2.826141e+38
0.02467191 0.257586 0.96500009 -2.8394856e+38
0.026541019 0.257853 0.96600002 -2.85283e+38
0.028384531 0.25785297 0.96600002 -2.8661744e+38
0.030228088 0.25785297 0.96599996 -2.8661744e+38
0.032071635 0.25785303 0.96600002 -2.8261412e+38
0.0338801 0.25758606 0.96500003 -2.8261938e+38
0.035684742 0.25731909 0.96400005 -2.8395382e+38
0.037563354 0.25758606 0.96500003 -2.8528826e+38
0.039364204 0.25731909 0.96400005 -2.8261414e+38
0.041118413 0.25678521 0.96200007 -2.85283e+38
0.042998999 0.25705215 0.96300006 -2.8394856e+38
0.044697106 0.25625139 0.96000004 -2.8528298e+38
0.046480775 0.25598443 0.95900005 -2.8395895e+38
0.048310973 0.25598443 0.95899999 -2.8663823e+38
0.050141148 0.25598446 0.95900005 -2.8531422e+38
0.052025504 0.25625136 0.96000004 -2.8397978e+38
0.053969815 0.25678527 0.96200007 -2.8532462e+38
0.055805713 0.25678521 0.96200007 -2.9198642e+38
0.057641655 0.25678527 0.96200013 -3.0265156e+38
0.059601255 0.25731909 0.96400005 -3.2131811e+38
0.061695889 0.25838679 0.96799999 -3.3464694e+38
0.063740157 0.25918758 0.97100008 nan
0.066268757 0.26185688 0.98100007 nan
0.068140946 0.26185682 0.98100007 nan
0.0007328745 0.26024011 0.96800005 -2.9995136e+38
0.0025748853 0.25970244 0.96600002 -2.906259e+38
0.0044093076 0.25916475 0.96399999 -2.9328437e+38
0.0062490534 0.25916475 0.96399999 -2.8928628e+38
0.0080887508 0.25916472 0.96400005 -2.8928109e+38
0.0099284928 0.25916472 0.96399999 -2.8661219e+38
0.011768242 0.25916472 0.96399999 -2.8661742e+38
0.01360794 0.25916469 0.96400005 -2.826141e+38
0.015431648 0.2588959 0.96300006 -2.8528298e+38
0.017269524 0.25889587 0.96300006 -2.8394854e+38
0.019107325 0.2588959 0.96300006 -2.8661744e+38
0.020966889 0.25916475 0.96400005 -2.8794667e+38
0.022830276 0.25943363 0.96500003 -2.8393816e+38
0.024697462 0.25970244 0.96599996 -2.8527779e+38
0.026513563 0.25943357 0.96500009 -2.8527779e+38
0.028355187 0.2594336 0.96500009 -2.8661744e+38
0.030196806 0.25943363 0.96500003 -2.8661744e+38
0.032005265 0.25916472 0.96400005 -2.85283e+38
0.03380987 0.25889593 0.96300006 -2.8394858e+38
0.035647728 0.25889587 0.96300006 -2.8528302e+38
0.037524469 0.25916475 0.96400005 -2.8528302e+38
0.039364226 0.25916475 0.96400005 -2.8261935e+38
0.041161172 0.25889587 0.96300006 -2.8261935e+38
0.042954281 0.25862706 0.96200007 -2.852882e+38
0.044790223 0.25862706 0.96200007 -2.8662262e+38
0.046626158 0.25862706 0.96200007 -2.8529339e+38
0.04841169 0.25835824 0.96100003 -2.8663823e+38
0.050245665 0.25835821 0.96100003 -2.8397978e+38
0.052188098 0.25889593 0.96300006 -2.8398497e+38
0.054025926 0.25889587 0.96300006 -2.8265574e+38
0.055863738 0.25889587 0.96300006 -2.9066238e+38
0.057701573 0.2588959 0.96300006 -3.0133274e+38
0.059663028 0.25943357 0.96500009 -3.1732002e+38
0.061759636 0.26050895 0.96899998 -3.3064881e+38
0.063740119 0.26104665 0.97100008 nan
0.066268772 0.26373509 0.98100007 nan
0.068140924 0.26373506 0.98100007 nan
0.00073436089 0.26263493 0.97000003 -3.0262548e+38
0.002580246 0.26209342 0.96800005 -2.932948e+38
0.0044184681 0.26155195 0.96600002 -2.932792e+38
0.006255528 0.26128116 0.96500003 -2.8662783e+38
0.0080971811 0.26128116 0.96500009 -2.8661221e+38
0.0099490937 0.26155192 0.96599996 -2.8795186e+38
0.011780402 0.26128116 0.96500003 -2.8661742e+38
0.013622055 0.26128116 0.96500009 -2.826141e+38
0.015463704 0.26128116 0.96500009 -2.826141e+38
0.017305357 0.26128116 0.96500003 -2.8394856e+38
0.019147007 0.26128116 0.96500009 -2.85283e+38
0.02101036 0.26155192 0.96600002 -2.8526739e+38
0.022853924 0.26155192 0.96600002 -2.8526739e+38
0.024697481 0.26155192 0.96599996 -2.8927071e+38
0.026541 0.26155198 0.96600002 -2.8793627e+38
0.028384553 0.26155195 0.96600002 -2.8661744e+38
0.030228088 0.26155192 0.96600002 -2.8795188e+38
0.03207162 0.26155192 0.96600002 -2.85283e+38
0.0338801 0.26128113 0.96500009 -2.8394856e+38
0.035721712 0.26128119 0.96500003 -2.8261412e+38
0.037563361 0.26128113 0.96500009 -2.8661744e+38
0.039364167 0.26101038 0.96400005 -2.8528298e+38
0.041203931 0.26101044 0.96400005 -2.8262453e+38
0.043043651 0.26101041 0.96400005 -2.8395375e+38
0.04488337 0.26101041 0.96400005 -2.8394854e+38
0.046674639 0.26073962 0.96300006 -2.852882e+38
0.048512466 0.26073959 0.96300006 -2.8529858e+38
0.050350279 0.26073962 0.96300006 -2.8396935e+38
0.052242309 0.26101041 0.96400005 -2.813213e+38
0.054025933 0.26073962 0.96300006 -2.8399018e+38
0.055863746 0.26073962 0.96300006 -2.8932794e+38
0.05770155 0.26073965 0.96300006 -2.9866905e+38
0.05966302 0.26128113 0.96500003 -3.1465631e+38
0.061823316 0.26263496 0.97000003 -3.2665591e+38
0.063805804 0.26317644 0.972 nan
0.06626875 0.26561332 0.98100007 nan
0.068140931 0.26561326 0.98100007 nan
0.00073667057 0.26531011 0.97299999 -3.066028e+38
0.0025882013 0.26476476 0.97100008 -2.9729293e+38
0.0044276137 0.26394677 0.96800005 -2.9461364e+38
0.0062684771 0.26367405 0.96700001 -2.8928628e+38
0.0081139449 0.26367402 0.96700007 -2.8662262e+38
0.0099594053 0.26367402 0.96700007 -2.8528298e+38
0.011792636 0.26340145 0.96600002 -2.8528298e+38
0.013636192 0.26340145 0.96600002 -2.8394854e+38
0.015479708 0.26340142 0.96600002 -2.8394856e+38
0.017323257 0.26340142 0.96599996 -2.8394856e+38
0.019186692 0.26367402 0.96700007 -2.8394856e+38
0.021010341 0.26340145 0.96600002 -2.8793627e+38
0.022877587 0.26367408 0.96700007 -2.8526739e+38
0.024723044 0.26367408 0.96700007 -2.8660187e+38
0.026541015 0.26340145 0.96600002 -2.8526739e+38
0.028413927 0.26367402 0.96700007 -2.8793627e+38
0.030259391 0.26367402 0.96700007 -2.8927071e+38
0.032138057 0.26394677 0.96800005 -2.8394335e+38
0.033915184 0.26340145 0.96600002 -2.8527777e+38
0.035721749 0.2631287 0.96500009 -2.8661221e+38
0.037563361 0.2631287 0.96500003 -2.8661742e+38
0.039364211 0.26285607 0.96400005 -2.8528298e+38
0.041246638 0.26312873 0.96500009 -2.826141e+38
0.043088302 0.26312873 0.96500009 -2.8127966e+38
0.044929944 0.2631287 0.96500009 -2.8394854e+38
0.046771586 0.26312873 0.96500003 -2.8528298e+38
0.048613191 0.2631287 0.96500003 -2.8261931e+38
0.050402604 0.26285607 0.96400005 -2.8396414e+38
0.052242331 0.26285607 0.96400005 -2.8530379e+38
0.054082043 0.26285607 0.96400005 -2.8397978e+38
0.055863731 0.26258337 0.96300006 -2.8665906e+38
0.057761513 0.26285607 0.96400005 -2.9466571e+38
0.059724838 0.26340145 0.96600002 -3.0933417e+38
0.061823331 0.26449206 0.97000003 -3.2533184e+38
0.063805833 0.26503739 0.97200006 -3.3999511e+38
0.066201247 0.2672188 0.98000002 nan
0.068071492 0.26721877 0.98000002 nan
0.00073891506 0.26799676 0.97600013 -3.1458861e+38
0.0026068781 0.2685459 0.97800004 -2.999514e+38
0.0044321977 0.2660746 0.96900004 -2.9328441e+38
0.0062814821 0.26607463 0.96899998 -2.8795708e+38
0.0081223454 0.26580006 0.96800005 -2.8662264e+38
0.0099593941 0.26552546 0.96700007 -2.8661744e+38
0.011792647 0.26525092 0.96600002 -2.85283e+38
0.013636163 0.26525092 0.96600002 -2.85283e+38
0.015479719 0.26525089 0.96600002 -2.8394856e+38
0.017341206 0.26552543 0.96700013 -2.8394335e+38
0.019186685 0.26552546 0.96700007 -2.8660183e+38
0.021032145 0.26552546 0.96700007 -2.8793105e+38
0.022877572 0.26552549 0.96700007 -2.8926549e+38
0.024723029 0.26552543 0.96700007 -2.8927073e+38
0.02654103 0.26525092 0.96600002 -2.8526217e+38
0.028443342 0.26580003 0.96800005 -2.8659661e+38
0.030322021 0.2660746 0.96900004 -2.8792584e+38
0.032204464 0.26634923 0.97000003 -2.8659138e+38
0.034055628 0.2663492 0.97000003 -2.8792582e+38
0.035869837 0.2660746 0.96900004 -2.9058951e+38
0.037563391 0.26497626 0.96500009 -2.8526737e+38
0.039364189 0.26470166 0.96400005 -2.8792582e+38
0.041246668 0.26497626 0.96500009 -2.8393292e+38
0.043088287 0.26497629 0.96500009 -2.839329e+38
0.044976443 0.26525092 0.96600002 -2.8259846e+38
0.046820037 0.26525086 0.96600002 -2.8527256e+38
0.048663542 0.26525089 0.96599996 -2.8794665e+38
0.050454833 0.26497632 0.96500009 -2.8528818e+38
0.052242324 0.26470166 0.96400005 -2.8529858e+38
0.054138109 0.26497632 0.96500003 -2.8530377e+38
0.055979751 0.26497626 0.96500003 -2.8531939e+38
0.057821371 0.26497629 0.96500003 -2.9466049e+38
0.059786655 0.26552546 0.96700007 -3.0932894e+38
0.061823331 0.26634923 0.97000003 -3.2266296e+38
0.063871495 0.26717299 0.97300005 -3.3466256e+38
0.066201225 0.26909506 0.98000002 nan
0.068071507 0.26909512 0.98000002 nan
0.00074042194 0.27041838 0.97800004 -3.1456778e+38
0.0026069116 0.27041841 0.97800004 -3.0526836e+38
0.0044367816 0.26820636 0.97000003 -2.9196038e+38
0.0062879194 0.26820636 0.97000003 -2.892863e+38
0.0081307571 0.26792982 0.96900004 -2.892759e+38
0.0099697057 0.26765332 0.96800005 -2.8794146e+38
0.011817088 0.26765335 0.96800005 -2.8661223e+38
0.0136503 0.26737684 0.96700013 -2.8394335e+38
0.015495731 0.26737684 0.96700007 -2.8527258e+38
0.017359195 0.26765335 0.96800005 -2.8792582e+38
0.019206518 0.26765332 0.96800005 -2.8925507e+38
0.021032127 0.26737684 0.96700007 -2.8924986e+38
0.022901228 0.26765335 0.96800005 -2.9057911e+38
0.024748629 0.26765329 0.96800005 -2.8791544e+38
0.026595963 0.26765335 0.96800005 -2.8924988e+38
0.028443331 0.26765332 0.96800005 -2.905687e+38
0.030322006 0.26792982 0.96900004 -2.8923424e+38
0.032204449 0.26820633 0.97000003 -2.8922901e+38
0.03405562 0.26820636 0.97000003 -2.9056866e+38
0.0358698 0.26792985 0.96900004 -2.9056866e+38
0.037680149 0.26765332 0.96800005 -2.8923422e+38
0.039445825 0.26710036 0.96600002 -2.8788937e+38
0.041246653 0.26682383 0.96500003 -2.8656534e+38
0.043088302 0.26682383 0.96500009 -2.8790499e+38
0.044976458 0.26710039 0.96600002 -2.8658096e+38
0.046820015 0.26710039 0.96599996 -2.8924984e+38
0.048713952 0.26737684 0.96700007 -2.8391729e+38
0.050507091 0.26710036 0.96599996 -2.8393288e+38
0.052296475 0.26682383 0.96500003 -2.8394852e+38
0.054138094 0.26682386 0.96500003 -2.8662779e+38
0.056037761 0.26710036 0.96600002 -2.866486e+38
0.057881311 0.26710039 0.96600002 -2.9466569e+38
0.05978667 0.26737681 0.96700007 -3.0799449e+38
0.061823331 0.26820636 0.97000003 -3.1999408e+38
0.063740134 0.26848286 0.97100002 -3.333229e+38
0.066133708 0.27069488 0.97900003 nan
0.068002053 0.27069491 0.97899997 nan
0.00074194185 0.27284768 0.98000002 -3.1855548e+38
0.0026122294 0.27284765 0.98000002 -3.0793203e+38
0.004464196 0.271734 0.97600007 -2.9727733e+38
0.006287938 0.27006352 0.97000003 -2.9327401e+38
0.0081307236 0.26978505 0.96900004 -2.9061032e+38
0.009969702 0.26950666 0.96800011 -2.8926026e+38
0.011817077 0.26950666 0.96800005 -2.8793103e+38
0.013650296 0.26922825 0.96700013 -2.8524654e+38
0.015495757 0.26922825 0.96700013 -2.8524654e+38
0.01735918 0.26950663 0.96800005 -2.8924462e+38
0.019206518 0.26950666 0.96800005 -2.8922903e+38
0.02105389 0.26950663 0.96800005 -2.9056347e+38
0.022901213 0.26950663 0.96800005 -2.9189791e+38
0.024774184 0.26978505 0.96900004 -2.8788939e+38
0.026650926 0.27006352 0.97000009 -2.9056347e+38
0.028472764 0.26978505 0.96900004 -2.8921862e+38
0.030353261 0.27006352 0.97000003 -2.8521007e+38
0.032237619 0.27034193 0.97100002 -2.8787893e+38
0.03405562 0.27006352 0.97000009 -2.9188225e+38
0.035869859 0.26978505 0.96900004 -2.8788412e+38
0.037719131 0.26978505 0.96900004 -2.8521003e+38
0.039527521 0.26950663 0.96800005 -2.8521003e+38
0.041332141 0.26922822 0.96700007 -2.865497e+38
0.043132916 0.26894987 0.96600002 -2.8255159e+38
0.04497648 0.26894987 0.96600002 -2.798879e+38
0.046820015 0.26894987 0.96600002 -2.7988271e+38
0.048713937 0.26922822 0.96700007 -2.6787794e+38
0.050559424 0.26922822 0.96700007 -2.7056246e+38
0.052404888 0.26922822 0.96700007 -2.8124837e+38
0.05419419 0.26894987 0.96600002 -2.8528292e+38
0.056037754 0.26894993 0.96600002 -2.8663298e+38
0.057881318 0.26894987 0.96600002 -2.9331044e+38
0.059786662 0.26922822 0.96700007 -3.0532561e+38
0.061759651 0.26978505 0.96900004 -3.1999408e+38
0.063740157 0.27034193 0.97100008 -3.333229e+38
0.066133708 0.27256921 0.97900003 nan
0.068002053 0.27256924 0.97899997 nan
0.00074267946 0.2750043 0.98100007 -3.2121917e+38
0.0026148763 0.2750043 0.98100007 -3.0659758e+38
0.0044641551 0.27360263 0.97600001 -2.9993579e+38
0.006300861 0.27248129 0.97200006 -2.9859094e+38
0.0081391316 0.27192062 0.97000009 -2.9459281e+38
0.0099800136 0.2716403 0.96900004 -2.8923945e+38
0.011817062 0.27135995 0.96800005 -2.9056866e+38
0.013664449 0.27135998 0.96800005 -2.9056343e+38
0.015511772 0.27135998 0.96800005 -2.9055819e+38
0.017377077 0.2716403 0.96900004 -2.8921335e+38
0.019226355 0.2716403 0.96900004 -2.90553e+38
0.021097383 0.27192062 0.97000003 -2.8653925e+38
0.022948528 0.27192062 0.97000009 -2.7987748e+38
0.024825277 0.27220097 0.97100013 -2.7321053e+38
0.026705837 0.27248126 0.97200006 -2.732001e+38
0.028560871 0.27248129 0.97200006 -2.7052599e+38
0.030415831 0.27248129 0.97200006 -2.6117971e+38
0.032270864 0.27248126 0.97200006 -2.5851083e+38
0.034090705 0.27220094 0.97100008 -2.5317822e+38
0.035943806 0.272201 0.97100008 -2.3983903e+38
0.037758 0.27192062 0.97000003 -2.304979e+38
0.039609194 0.27192065 0.97000003 -2.2515497e+38
0.041417636 0.2716403 0.96900004 -2.2515497e+38
0.043222241 0.27135998 0.96800005 -2.2382055e+38
0.045069627 0.27135998 0.96800005 -2.1982763e+38
0.046916977 0.27135995 0.96800005 -2.1316066e+38
0.048764333 0.27135995 0.96800005 -2.1316068e+38
0.050664008 0.2716403 0.96900004 -2.1316066e+38
0.052459054 0.27135998 0.96799999 -2.1049699e+38
0.054306418 0.27136001 0.96800005 -2.6391106e+38
0.056095757 0.27107963 0.96700007 -2.8928624e+38
0.058001146 0.27135992 0.96800005 -2.9330522e+38
0.059786685 0.27107963 0.96700013 -2.9865341e+38
0.061759651 0.2716403 0.96900004 -3.1599075e+38
0.063805819 0.27248126 0.97200006 -3.3197806e+38
0.066201232 0.27472395 0.98000002 nan
0.068071499 0.27472392 0.98000002 nan
0.00074197911 0.27660021 0.98000002 -3.2921541e+38
0.0026122332 0.27660024 0.98000008 -3.1325938e+38
0.0044687651 0.27575356 0.97700006 -3.0126503e+38
0.0063138884 0.27490678 0.97399998 -2.9326356e+38
0.0081559028 0.27434227 0.97200006 -2.9457715e+38
0.010010855 0.2743423 0.97200006 -2.8788935e+38
0.011853667 0.27406001 0.97100008 -2.772034e+38
0.013692664 0.27377778 0.97000009 -2.5451266e+38
0.015543846 0.27377775 0.97000003 -2.4249748e+38
0.017377133 0.2734955 0.96900004 -2.4382671e+38
0.019246211 0.27377772 0.97000009 -2.371597e+38
0.021140886 0.27434224 0.97200006 -2.3182198e+38
0.022995839 0.2743423 0.97200006 -2.3182198e+38
0.024876444 0.27462447 0.97300005 -2.2381536e+38
0.026760841 0.27490675 0.97400004 -2.1847761e+38
0.02861969 0.27490675 0.97400004 -2.1581392e+38
0.030478483 0.27490675 0.97400004 -2.1446908e+38
0.032304078 0.27462447 0.97300005 -2.2380495e+38
0.034125842 0.27434224 0.97200006 -2.2781344e+38
0.035980858 0.27434224 0.97200006 -2.3847856e+38
0.037835844 0.27434227 0.97200006 -2.4381631e+38
0.039690852 0.27434224 0.97200006 -2.4783525e+38
0.041503087 0.27406007 0.97100008 -2.5317301e+38
0.043311551 0.27377778 0.97000009 -2.6384853e+38
0.045162715 0.27377775 0.97000003 -2.7719294e+38
0.04696545 0.27349553 0.96900004 -2.7720336e+38
0.048814721 0.27349553 0.96900004 -2.8121188e+38
0.050716266 0.27377778 0.97000003 -2.7587411e+38
0.052567445 0.27377772 0.97000009 -2.2381532e+38
0.05436255 0.27349553 0.96900004 -2.091573e+38
0.056153804 0.27321327 0.96800005 -2.7593143e+38
0.058001161 0.2732133 0.96800005 -2.8531418e+38
0.059786685 0.27293101 0.96700007 -3.0131187e+38
0.061823331 0.27377775 0.97000003 -3.1730958e+38
0.063805789 0.27434227 0.97200006 -3.3197287e+38
0.066201203 0.27660021 0.98000002 nan
0.068071477 0.27660018 0.98000002 nan
0.0007457789 0.27989733 0.98500001 -3.3321352e+38
0.0026255511 0.27989727 0.98500007 -3.172627e+38
0.004482476 0.27847648 0.98000002 -2.9994096e+38
0.0063268039 0.27733982 0.97600007 -2.8793621e+38
0.0081642698 0.27648735 0.97300005 -2.9057381e+38
0.010021182 0.27648738 0.97300005 -2.4384758e+38
0.01186589 0.27620322 0.97200006 -2.0646757e+38
0.013720876 0.27620319 0.97200012 -2.3314597e+38
0.01557588 0.27620316 0.97200006 -2.4647472e+38
0.017430881 0.27620322 0.972 -2.491436e+38
0.019305697 0.27648735 0.97300005 -2.5182291e+38
0.021184379 0.27677155 0.97400004 -2.6115361e+38
0.023043232 0.27677155 0.97400004 -2.6783102e+38
0.024927577 0.27705565 0.97500002 -2.7450323e+38
0.0267883 0.27705568 0.97500002 -2.7851697e+38
0.028678386 0.27733991 0.97600007 -2.8651845e+38
0.030509738 0.27705568 0.97500002 -2.918614e+38
0.032337293 0.27677155 0.97400004 -2.9185623e+38
0.034196101 0.27677158 0.97400004 -2.9319582e+38
0.03601791 0.27648732 0.97300005 -2.958543e+38
0.037874788 0.27648741 0.97299999 -2.8249429e+38
0.039731726 0.27648735 0.97300005 -2.7849095e+38
0.04158859 0.27648735 0.97299999 -2.9319582e+38
0.043400839 0.27620316 0.97200006 -2.9054775e+38
0.045209259 0.27591908 0.97100008 -2.9587513e+38
0.047013894 0.27563494 0.97000003 -2.9322186e+38
0.048865117 0.27563494 0.97000009 -2.9587513e+38
0.050768524 0.27591911 0.97100008 -2.918874e+38
0.052621618 0.27591908 0.97100008 -2.731844e+38
0.054418631 0.27563491 0.97000009 -2.0244869e+38
0.056211814 0.27535075 0.96900004 -2.6391623e+38
0.058001176 0.27506658 0.96800005 -2.8664341e+38
0.059786677 0.27478242 0.96700007 -2.9730852e+38
0.061823346 0.27563491 0.97000003 -3.1464068e+38
0.063805796 0.27620316 0.97200006 -3.2932475e+38
0.066201255 0.27847651 0.98000002 nan
0.068627186 0.2807498 0.98800004 nan
0.070512719 0.2807498 0.98800004 nan
0.0044687726 0.27949458 0.97700006 -2.9995134e+38
0.0063333008 0.27949455 0.97700006 -2.932635e+38
0.0081810784 0.27892241 0.97500002 -2.8657045e+38
0.010041805 0.27892244 0.97500002 -1.9580245e+38
0.01189032 0.2786364 0.97400004 -2.3981816e+38
0.01376324 0.27892244 0.97500002 -2.985179e+38
0.015623985 0.27892238 0.97500002 -2.9716785e+38
0.017484711 0.27892244 0.97500008 -2.9450937e+38
0.019345427 0.27892241 0.97500002 -2.8651315e+38
0.02122785 0.27920854 0.97600007 -2.9718348e+38
0.023090469 0.27920851 0.97600007 -2.9585426e+38
0.024953132 0.27920851 0.97600007 -2.9452505e+38
0.026815748 0.27920848 0.97600007 -2.9186659e+38
0.028678378 0.27920851 0.97600007 -2.9188221e+38
0.030540997 0.27920848 0.97600007 -2.905374e+38
0.032370493 0.27892244 0.97500002 -2.8919775e+38
0.034196101 0.27863637 0.97399998 -2.8786846e+38
0.036017887 0.27835023 0.97300005 -2.9317501e+38
0.037874788 0.27835023 0.97300005 -2.477832e+38
0.039772555 0.27863637 0.97400004 -2.2110481e+38
0.041588604 0.27835023 0.97300005 -2.9584389e+38
0.043400839 0.27806419 0.97200006 -2.8520481e+38
0.045209259 0.27777815 0.97100008 -2.8786848e+38
0.047062367 0.27777815 0.97100008 -2.9055817e+38
0.048915461 0.27777815 0.97100008 -2.945459e+38
0.05082085 0.27806419 0.97200006 -2.9054777e+38
0.052675836 0.27806422 0.97200006 -2.7987224e+38
0.054474697 0.27777815 0.97100008 -2.0112465e+38
0.05626981 0.27749205 0.97000003 -2.5588359e+38
0.058061093 0.277206 0.96899998 -2.9328437e+38
0.059910372 0.277206 0.96899998 -2.9597408e+38
0.061887056 0.27777815 0.97100008 -3.1197701e+38
0.063805819 0.27806419 0.97200006 -3.2663504e+38
0.06626875 0.28063887 0.98100007 nan
0.06848824 0.28206927 0.98600006 nan
0.070369959 0.28206927 0.98600006 nan
0.0044779684 0.28194106 0.97900003 -3.0393897e+38
0.0063463133 0.28194106 0.97899997 -2.9725638e+38
0.0081893969 0.28107715 0.97600007 -2.9057375e+38
0.010062372 0.28136513 0.97700006 -1.918043e+38
0.011914684 0.28107712 0.97600007 -2.451559e+38
0.01377731 0.28107715 0.97600001 -3.0118157e+38
0.015656004 0.28136513 0.97700006 -2.9583341e+38
0.017520538 0.28136516 0.97700006 -2.758272e+38
0.019385098 0.2813651 0.97700006 -1.957764e+38
0.021271398 0.28165314 0.97800004 -2.4515071e+38
0.023114173 0.28136516 0.97700006 -2.8787363e+38
0.024978699 0.2813651 0.977 -2.8521001e+38
0.026843233 0.28136516 0.977 -2.8254113e+38
0.0287078 0.28136516 0.97700006 -2.878581e+38
0.030540997 0.28107715 0.97600007 -2.945147e+38
0.032370456 0.28078908 0.97500008 -2.9716276e+38
0.034231178 0.28078911 0.97500008 -2.9313858e+38
0.036054902 0.28050113 0.97400004 -3.0111397e+38
0.037913762 0.28050113 0.97400004 -2.4904477e+38
0.039813332 0.28078911 0.97500002 -2.2103713e+38
0.041631378 0.28050113 0.97400004 -2.8245263e+38
0.043400802 0.2799252 0.97200006 -2.7181354e+38
0.045209244 0.27963722 0.97100008 -2.8117545e+38
0.04706233 0.27963722 0.97100008 -2.8655485e+38
0.048965834 0.27992517 0.97200006 -2.8789972e+38
0.050873145 0.28021312 0.97300005 -2.8790489e+38
0.052784249 0.28050119 0.97400004 -2.8787885e+38
0.05464308 0.28050119 0.97400004 -2.104605e+38
0.056443855 0.28021312 0.97300005 -2.4119428e+38
0.058240794 0.27992514 0.97200006 -2.946136e+38
0.060033992 0.27963719 0.97100008 -2.972981e+38
0.061950818 0.27992517 0.97200006 -3.1064776e+38
0.06393715 0.28050113 0.97400004 -3.2931433e+38
0.06620121 0.28222907 0.98000002 -3.3731582e+38
0.068627208 0.28453302 0.98800004 nan
0.070512712 0.28453305 0.98800004 nan
0.0044870321 0.28439525 0.98100007 -3.0927675e+38
0.0063591953 0.28439525 0.98100007 -2.97272e+38
0.0082062688 0.28352556 0.97800004 -2.9856999e+38
0.010072662 0.28352556 0.97800004 -2.0247465e+38
0.01192691 0.28323567 0.97700006 -2.2247041e+38
0.013791485 0.28323567 0.97700006 -2.9583862e+38
0.015672056 0.28352559 0.97800004 -2.9583341e+38
0.017538456 0.28352559 0.97800004 -2.8114937e+38
0.019404935 0.28352556 0.97799999 -1.7974231e+38
0.021271365 0.28352553 0.97800004 -1.9709523e+38
0.023114176 0.28323567 0.97700006 -2.8783719e+38
0.02497871 0.28323567 0.97700006 -2.9184576e+38
0.02684324 0.28323567 0.977 -2.7181875e+38
0.028707808 0.28323567 0.97700006 -2.5176569e+38
0.030541008 0.28294581 0.97600007 -2.490344e+38
0.032403648 0.28294578 0.97600007 -2.3566397e+38
0.034231178 0.28265584 0.97500002 -2.3298461e+38
0.036091901 0.28265589 0.97500002 -2.3431386e+38
0.037952617 0.28265586 0.97500002 -2.2630198e+38
0.039813362 0.28265581 0.97500002 -2.2095381e+38
0.041631348 0.28236592 0.97400004 -2.2098505e+38
0.043400861 0.28178614 0.97200006 -2.2236117e+38
0.045209244 0.28149623 0.97100008 -2.3441796e+38
0.047110818 0.28178614 0.972 -2.8651842e+38
0.049016215 0.28207606 0.97300005 -2.8256713e+38
0.050925449 0.28236595 0.97400004 -2.8390674e+38
0.052784219 0.28236598 0.97400004 -2.8921329e+38
0.054643072 0.28236598 0.97400004 -2.2382568e+38
0.056443848 0.28207603 0.97300005 -2.1318662e+38
0.058240831 0.28178614 0.97200006 -2.9327391e+38
0.060033984 0.28149629 0.97100008 -2.9197074e+38
0.06195081 0.28178614 0.97200006 -3.053204e+38
0.063937135 0.28236592 0.97400004 -3.2265774e+38
0.06620121 0.28410536 0.98000002 -3.3065924e+38
0.068627208 0.28642458 0.98800004 nan
0.070512727 0.28642461 0.98800004 nan
0.0045007747 0.28714889 0.98400003 -3.1060076e+38
0.0063786488 0.28714892 0.98400003 -2.9860642e+38
0.0082230214 0.28598166 0.98000002 -3.0522657e+38
0.010082981 0.28568983 0.97900003 -2.3584086e+38
0.011939155 0.28539798 0.97800004 -2.0646755e+38
0.013805604 0.28539801 0.97799999 -2.9051128e+38
0.015672041 0.28539804 0.97800004 -2.9716787e+38
0.017556442 0.28568986 0.97900003 -2.9583343e+38
0.019424783 0.28568989 0.97900003 -1.9709004e+38
0.021293158 0.28568983 0.97900003 -1.9173666e+38
0.023137832 0.28539804 0.97800004 -2.8114417e+38
0.025004266 0.28539801 0.97800004 -2.9848671e+38
0.026843252 0.28510624 0.97700006 -2.5306888e+38
0.028737167 0.28539801 0.97800004 -2.0765107e+38
0.03060363 0.28539798 0.97800004 -2.1695053e+38
0.032470085 0.28539801 0.97800004 -2.2227787e+38
0.034301385 0.28510618 0.97700006 -2.2360706e+38
0.036165908 0.28510618 0.977 -2.2494671e+38
0.038069434 0.28539804 0.97800004 -2.2361746e+38
0.039935879 0.28539801 0.97800004 -2.1428157e+38
0.041716799 0.28481442 0.97600007 -2.1293672e+38
0.043534808 0.28452256 0.97500008 -2.2230385e+38
0.045302436 0.28393891 0.97300005 -2.1302004e+38
0.047207803 0.28423071 0.97400004 -2.6913942e+38
0.049116962 0.28452256 0.97500002 -2.8520997e+38
0.051029935 0.28481442 0.97600007 -2.8388593e+38
0.052892588 0.28481439 0.97600007 -2.9053209e+38
0.054755226 0.28481436 0.97600007 -2.4384229e+38
0.056559876 0.28452253 0.97500008 -2.0783322e+38
0.058360673 0.28423077 0.97400004 -2.9194468e+38
0.060095839 0.28364712 0.97200006 -2.9596887e+38
0.062014557 0.28393888 0.97300005 -3.0398596e+38
0.063871458 0.28393885 0.97300005 -3.1863883e+38
0.066133685 0.28568983 0.97900003 -3.3198846e+38
0.068557732 0.28802437 0.98700005 nan
0.070512712 0.28831619 0.98799998 nan
0.0045099165 0.28962037 0.98600006 -3.1725218e+38
0.0063916463 0.28962034 0.986 -3.0525781e+38
0.008231381 0.28815168 0.98100001 -3.0122325e+38
0.010093277 0.28785795 0.98000002 -2.5051972e+38
0.011951396 0.28756422 0.97900003 -1.9979534e+38
0.013819737 0.28756416 0.97899997 -2.8250985e+38
0.015704064 0.28785792 0.98000002 -2.9449899e+38
0.017574353 0.28785792 0.97999996 -3.0117119e+38
0.019444605 0.28785795 0.98000002 -2.291114e+38
0.021336591 0.28815165 0.98100007 -1.8772812e+38
0.023185151 0.28785795 0.98000002 -2.69129e+38
0.02502984 0.28756422 0.97900003 -3.0249001e+38
0.026898192 0.28756425 0.97900003 -2.7974205e+38
0.028766574 0.28756425 0.97900003 -2.0763022e+38
0.030666174 0.28785789 0.98000002 -2.1560041e+38
0.032569632 0.28815165 0.98100007 -2.1560043e+38
0.034406714 0.28785792 0.98000002 -2.1426597e+38
0.036313988 0.28815168 0.98100007 -2.1558479e+38
0.038186163 0.28815165 0.98100007 -2.1026263e+38
0.040058315 0.28815168 0.98100007 -2.1291589e+38
0.041887805 0.28785795 0.98000002 -2.1291589e+38
0.043713436 0.28756422 0.97900003 -2.1695045e+38
0.045488611 0.28697672 0.977 -2.2097462e+38
0.047353186 0.28697672 0.97700006 -2.4105889e+38
0.049268104 0.28727049 0.97800004 -2.7447714e+38
0.051134564 0.28727046 0.97800004 -2.878684e+38
0.05305519 0.28756422 0.97900003 -2.9319576e+38
0.054867476 0.28727049 0.97800004 -2.624828e+38
0.056675851 0.28697672 0.97700006 -2.0779156e+38
0.058480479 0.28668302 0.97600007 -2.8789968e+38
0.060219496 0.28609553 0.97400004 -2.9994611e+38
0.062014565 0.28580177 0.97300005 -3.0131189e+38
0.06393712 0.28609556 0.97400004 -3.1597514e+38
0.066066116 0.28727049 0.97799999 -3.2798514e+38
0.068557724 0.28991407 0.98700005 nan
0.070441365 0.2899141 0.98700005 nan
0.0045098998 0.29150814 0.98600006 -3.2523801e+38
0.0063916128 0.29150808 0.98600006 -3.0525781e+38
0.0082313921 0.29002985 0.98100001 -2.9989922e+38
0.010093322 0.28973424 0.98000002 -2.7720851e+38
0.011951348 0.28943861 0.97900003 -1.9979534e+38
0.013819722 0.28943855 0.97900003 -2.7183433e+38
0.015688071 0.28943858 0.97900003 -3.0250563e+38
0.017574349 0.28973421 0.98000008 -2.9716787e+38
0.019444609 0.28973421 0.98000002 -2.5446577e+38
0.021336598 0.29002985 0.98100007 -1.8372484e+38
0.02318511 0.28973427 0.98000008 -2.5443979e+38
0.025029873 0.28943858 0.97900003 -3.0115557e+38
0.026898256 0.28943858 0.97900003 -2.9174682e+38
0.0287666 0.28943858 0.97900003 -2.0230805e+38
0.030697422 0.29002988 0.98100007 -2.1692964e+38
0.032569647 0.29002985 0.98100007 -2.1293153e+38
0.034441784 0.29002988 0.98100007 -2.1024701e+38
0.036313973 0.29002985 0.98100007 -2.1291068e+38
0.038225114 0.29032552 0.98200005 -2.1158664e+38
0.040099189 0.29032552 0.98200005 -2.1292109e+38
0.041930489 0.29002988 0.98100001 -2.1026263e+38
0.04375805 0.28973418 0.98000002 -2.1294713e+38
0.045535222 0.28914291 0.97800004 -2.2496229e+38
0.047401629 0.28914297 0.97800004 -2.1565765e+38
0.049268112 0.28914294 0.97799999 -2.0770307e+38
0.051134549 0.28914297 0.97800004 -2.7448236e+38
0.053055234 0.28943861 0.97900003 -2.9585424e+38
0.054867461 0.28914294 0.97800004 -2.7982012e+38
0.056675866 0.28884724 0.97700006 -2.0377782e+38
0.058480456 0.28855163 0.97600007 -2.7721894e+38
0.060219511 0.28796032 0.97400004 -2.9727204e+38
0.062078282 0.28796035 0.97399998 -2.9597408e+38
0.063871466 0.28766465 0.97300005 -3.1597512e+38
0.066066168 0.28914297 0.97800004 -3.266507e+38
0.068488248 0.29150808 0.98600006 nan
0.070369959 0.29150814 0.98600006 nan
0.0064046364 0.293991 0.98800004 -3.0258893e+38
0.0082398336 0.29220569 0.98200005 -2.9457705e+38
0.010103563 0.29190809 0.98100013 -2.8788402e+38
0.011975707 0.29190806 0.98100007 -2.024642e+38
0.013847882 0.29190812 0.98100007 -2.4781957e+38
0.015720068 0.29190806 0.98100007 -2.9584381e+38
0.017592268 0.29190809 0.98100013 -2.9583341e+38
0.019484287 0.29220566 0.98200005 -2.8114415e+38
0.021358358 0.29220569 0.98200005 -1.8905216e+38
0.023208776 0.29190806 0.98100007 -2.4242978e+38
0.02508097 0.29190806 0.98100007 -2.9714184e+38
0.026953133 0.29190809 0.98100001 -2.9975347e+38
0.028825322 0.29190806 0.98100007 -2.1031469e+38
0.030760078 0.29250318 0.9830001 -2.089334e+38
0.032669209 0.29280075 0.98400003 -2.1027303e+38
0.034547135 0.29280078 0.98400003 -2.0891776e+38
0.036425047 0.29280075 0.98400009 -2.1157624e+38
0.038302951 0.29280078 0.98400009 -2.1024699e+38
0.040180832 0.29280075 0.98400003 -2.0759375e+38
0.042058706 0.29280072 0.98400003 -2.1026261e+38
0.043891996 0.29250315 0.98299998 -2.1294707e+38
0.045674838 0.29190809 0.98100007 -2.2230898e+38
0.047547027 0.29190806 0.98100007 -2.1565761e+38
0.049368843 0.29161045 0.98000002 -2.0503938e+38
0.051186845 0.29131293 0.97899997 -2.6650695e+38
0.053055204 0.29131293 0.97900003 -2.9187174e+38
0.054923557 0.29131293 0.97900003 -2.7853255e+38
0.056733914 0.29101539 0.97800004 -1.9980056e+38
0.058540426 0.29071778 0.97700006 -2.5854718e+38
0.060343102 0.29042032 0.97600007 -2.9327912e+38
0.062142029 0.29012269 0.97500002 -2.9596887e+38
0.064002752 0.29012272 0.97500008 -3.1464068e+38
0.066066138 0.29101539 0.97800004 -3.279851e+38
0.068488248 0.29339591 0.98600006 nan
0.070369929 0.29339594 0.98600006 nan
0.0064176004 0.29648155 0.99000007 -3.0526821e+38
0.0082482453 0.29438525 0.98300004 -2.959063e+38
0.010124208 0.29438525 0.9830001 -2.9987837e+38
0.012000179 0.29438525 0.98300004 -2.2381525e+38
0.013862045 0.2940858 0.98200005 -2.1446377e+38
0.015736101 0.29408577 0.98199999 -2.9317493e+38
0.017610164 0.2940858 0.98200005 -2.9318014e+38
0.019484313 0.2940858 0.98200005 -2.9182489e+38
0.021380143 0.29438522 0.98299998 -2.0106731e+38
0.023256106 0.29438519 0.98300004 -2.2372159e+38
0.025132088 0.29438525 0.98300004 -3.0643606e+38
0.027008099 0.29438525 0.98300004 -3.0242752e+38
0.028884107 0.29438522 0.98300004 -2.2766242e+38
0.030822689 0.29498416 0.98500001 -2.0759894e+38
0.032768868 0.29558316 0.98700005 -2.1159707e+38
0.034617342 0.2952837 0.98600006 -2.0892819e+38
0.03649909 0.29528368 0.98600006 -2.0758856e+38
0.038380802 0.2952837 0.98600006 -2.102418e+38
0.040262528 0.29528368 0.98600006 -2.0892298e+38
0.042144217 0.2952837 0.98600006 -2.0626971e+38
0.043981321 0.29498422 0.98500001 -2.1428676e+38
0.045861125 0.29498419 0.98500007 -2.2629673e+38
0.047595516 0.29408577 0.98200005 -2.1567327e+38
0.04941918 0.29378629 0.98100007 -2.5712942e+38
0.051239125 0.29348671 0.98000002 -2.7856377e+38
0.053109363 0.29348677 0.98000002 -2.8788402e+38
0.054979645 0.29348683 0.98000002 -2.8919771e+38
0.056849889 0.29348677 0.98000002 -2.2381012e+38
0.058660284 0.29318729 0.97900003 -2.3585652e+38
0.060466796 0.29288784 0.97800004 -2.9327912e+38
0.062333234 0.29288781 0.97800004 -2.9064673e+38
0.064134039 0.29258838 0.97700006 -3.0931851e+38
0.066201217 0.29348677 0.98000002 -3.2531101e+38
0.06848824 0.29528373 0.98600006 nan
0.070369951 0.29528368 0.98600006 nan
0.0064240489 0.29867843 0.99100006 -3.0926113e+38
0.008248223 0.29626721 0.98300004 -2.9991481e+38
0.010113856 0.29596588 0.98199999 -3.0254725e+38
0.011987919 0.29596591 0.98200005 -2.4517671e+38
0.013862064 0.29596591 0.98200005 -2.09126e+38
0.015736124 0.29596588 0.98200005 -2.9851269e+38
0.017610224 0.29596585 0.98199999 -2.9184049e+38
0.019484298 0.29596594 0.98200005 -2.9715223e+38
0.021358354 0.29596591 0.98200005 -2.210735e+38
0.023256151 0.29626727 0.98300004 -2.0501338e+38
0.025132155 0.29626724 0.98300004 -2.8241087e+38
0.027008129 0.29626727 0.98299998 -2.9707931e+38
0.028884089 0.29626724 0.98300004 -2.4899779e+38
0.030853907 0.29717147 0.98600006 -2.0228718e+38
0.03276886 0.29747283 0.98700005 -2.0629569e+38
0.034617364 0.29717144 0.98600006 -2.0494566e+38
0.036499046 0.29717144 0.98600006 -2.0493523e+38
0.038380794 0.29717144 0.98600006 -2.0626446e+38
0.040262513 0.29717144 0.98600006 -2.1291064e+38
0.042144202 0.29717147 0.98600006 -2.1026257e+38
0.043981299 0.29687005 0.98500001 -2.1295749e+38
0.04576803 0.29626727 0.98300004 -2.2232464e+38
0.047643989 0.29626727 0.98300004 -2.1437527e+38
0.049419187 0.29566449 0.98100007 -2.8652875e+38
0.05123914 0.29536307 0.98000002 -2.8257751e+38
0.053109385 0.29536304 0.98000002 -2.8523599e+38
0.054979622 0.2953631 0.98000002 -2.9188221e+38
0.056849934 0.2953631 0.98000008 -2.2917912e+38
0.058660269 0.29506171 0.97900003 -2.1718998e+38
0.060528643 0.29506165 0.97900003 -2.985909e+38
0.062396988 0.29506168 0.97899997 -2.9994094e+38
0.064199701 0.29476032 0.97800004 -3.0265152e+38
0.066268757 0.29566446 0.98100007 -3.1864921e+38
0.068488255 0.29717147 0.98600006 -3.3198846e+38
0.070369944 0.29717144 0.98600006 nan
0.073204331 0.3010895 0.99900007 nan
0.075561918 0.30289781 1.005 nan
0.07825087 0.30591178 1.015 nan
0.080187939 0.30591181 1.0150001 nan
0.0063851718 0.29875588 0.98500001 -3.1858658e+38
0.0082649682 0.29875594 0.98500001 -3.0524217e+38
0.010134464 0.29845256 0.98400003 -2.9854395e+38
0.012012338 0.29845259 0.98400003 -2.6386409e+38
0.013876168 0.29814929 0.98299998 -1.9845048e+38
0.01575218 0.29814929 0.98299998 -2.8516829e+38
0.017628139 0.29814923 0.98300004 -2.9450414e+38
0.019504124 0.29814932 0.98300004 -2.7579073e+38
0.021380125 0.29814929 0.98300004 -2.0770822e+38
0.023279747 0.29845256 0.98400009 -1.9964432e+38
0.025183214 0.29875594 0.98500007 -2.1831602e+38
0.027063033 0.29875591 0.98500001 -2.7440423e+38
0.028942851 0.29875588 0.98500001 -2.6904564e+38
0.030885266 0.29936257 0.98700005 -1.996339e+38
0.032802083 0.29966581 0.98800004 -2.0229237e+38
0.034687594 0.29966581 0.98800004 -2.0629048e+38
0.036573149 0.29966581 0.98800004 -2.0763013e+38
0.03845869 0.29966587 0.98800004 -2.0363722e+38
0.040344223 0.29966584 0.98800004 -2.0095274e+38
0.042229749 0.29966587 0.98800004 -2.0761973e+38
0.044070594 0.29936254 0.98700005 -1.9565666e+38
0.045861147 0.29875588 0.98500001 -2.0771348e+38
0.047692463 0.29845256 0.98400009 -2.224496e+38
0.049520001 0.29814932 0.98300004 -2.7855338e+38
0.051291361 0.29754269 0.98100007 -2.8657568e+38
0.053163558 0.29754269 0.98100007 -2.905686e+38
0.055091843 0.29784602 0.98200005 -2.9188746e+38
0.056965917 0.29784599 0.98200005 -2.4784571e+38
0.058840007 0.29784602 0.98200005 -2.1180541e+38
0.060714088 0.29784605 0.98200005 -2.9327395e+38
0.062588163 0.29784602 0.98200005 -2.8931233e+38
0.064396575 0.29754269 0.98100007 -3.0265152e+38
0.066336311 0.29784602 0.98200005 -3.2130249e+38
0.068557717 0.29936251 0.98700005 -3.2931954e+38
0.070798166 0.30087906 0.99200004 nan
0.073204339 0.30300215 0.99900001 nan
0.075561941 0.30482197 1.005 nan
0.0064629633 0.30430442 0.99699998 -3.1591774e+38
0.0083656553 0.30430436 0.99700004 -3.052526e+38
0.010165377 0.30125222 0.98699999 -2.9721993e+38
0.012024572 0.30064172 0.98500001 -2.8253066e+38
0.013904398 0.30064175 0.98500001 -1.9712644e+38
0.015768172 0.30033651 0.98400003 -2.6650174e+38
0.017646084 0.30033651 0.98400003 -2.9051641e+38
0.019523928 0.30033654 0.98400003 -2.6244631e+38
0.021423614 0.30064178 0.98500007 -2.1570965e+38
0.023327066 0.30094698 0.98600006 -2.0630091e+38
0.025208762 0.30094698 0.98600006 -1.9830463e+38
0.027090529 0.30094698 0.98600006 -2.3705545e+38
0.028972222 0.30094701 0.98600006 -2.8509016e+38
0.030885259 0.30125225 0.98700005 -2.1304077e+38
0.032802053 0.30155739 0.98799998 -2.0772388e+38
0.034687601 0.30155739 0.98799998 -2.1040317e+38
0.036573134 0.30155739 0.98799998 -2.2106829e+38
0.038497575 0.3018626 0.98900002 -2.3706596e+38
0.040385008 0.3018626 0.98900002 -2.3706596e+38
0.042272463 0.30186263 0.98900002 -1.9969643e+38
0.044115268 0.30155742 0.98800004 -2.3707119e+38
0.045907639 0.30094698 0.98600006 -2.6650178e+38
0.047740936 0.30064175 0.98500007 -2.7187081e+38
0.049570359 0.30033654 0.98400003 -2.8390161e+38
0.051343665 0.2997261 0.98200005 -2.8789972e+38
0.053217746 0.29972607 0.98199999 -2.9588553e+38
0.05509185 0.29972607 0.98200005 -2.9722001e+38
0.05702395 0.3000313 0.98300004 -2.705312e+38
0.058899954 0.3000313 0.98300004 -2.0111427e+38
0.060837731 0.30033654 0.98400003 -2.8392771e+38
0.062651917 0.30003133 0.98300004 -2.9064677e+38
0.064462245 0.2997261 0.98200005 -2.9865341e+38
0.066403911 0.3000313 0.98300004 -3.1597514e+38
0.068557709 0.30125222 0.98700005 -3.2932475e+38
0.070798196 0.3027783 0.99200004 nan
0.072691388 0.3027783 0.99200004 nan
0.074885227 0.30399919 0.99600005 nan
0.0064629819 0.30621326 0.99700004 -3.1590737e+38
0.0083656367 0.30621323 0.99700004 -3.0259937e+38
0.010165406 0.30314189 0.98700005 -2.9590115e+38
0.012024587 0.30252761 0.98500001 -2.8921852e+38
0.013904406 0.30252758 0.98500001 -1.9712646e+38
0.015768172 0.30222043 0.98400003 -2.4113175e+38
0.017646035 0.3022204 0.98400003 -2.931697e+38
0.019523961 0.30222043 0.98400003 -2.7445629e+38
0.021423625 0.30252761 0.98500007 -2.2108386e+38
0.02335074 0.30314192 0.98700011 -1.9437426e+38
0.02523434 0.30314192 0.98700005 -1.9034486e+38
0.027090499 0.30283472 0.98600006 -2.0642063e+38
0.028972248 0.30283478 0.98600006 -2.9319576e+38
0.030885259 0.30314195 0.98700005 -2.7853772e+38
0.032768838 0.30314189 0.98700005 -2.8254628e+38
0.034652472 0.30314189 0.98700005 -2.8255668e+38
0.036573134 0.303449 0.98800004 -2.8523078e+38
0.038458675 0.30344906 0.98800004 -2.8920288e+38
0.040344238 0.30344903 0.98800004 -2.9985758e+38
0.042229742 0.30344903 0.98800004 -2.3444916e+38
0.044070579 0.30314192 0.98700005 -2.1311898e+38
0.045907676 0.30283478 0.98600012 -2.878841e+38
0.047740936 0.30252758 0.98500001 -2.8390684e+38
0.0495703 0.30222043 0.98400003 -2.8657572e+38
0.051343672 0.30160627 0.98199999 -2.9055302e+38
0.053217731 0.30160624 0.98199999 -2.9188225e+38
0.055091858 0.30160624 0.98200005 -2.9320103e+38
0.057023935 0.30191332 0.98300004 -2.7854302e+38
0.058899947 0.30191329 0.98300004 -1.8784789e+38
